ply
format ascii 1.0
element vertex 144
property float x
property float y
property float z
property uchar red
property uchar green
property uchar blue
end_header
-2.884680 -1.029443 -2.868771 139 69 19
-3.005624 -0.915406 -2.489835 139 69 19
-3.112138 -0.956012 -2.146531 139 69 19
-3.034955 -0.925842 -1.766887 139 69 19
-2.856635 -0.888984 -1.300420 139 69 19
-3.039655 -0.952040 -0.770890 139 69 19
-2.996985 -0.940696 -0.643820 139 69 19
-2.970319 -0.914742 -0.013925 139 69 19
-3.091867 -0.926793 0.387293 139 69 19
-2.985675 -1.054164 0.982879 139 69 19
-3.103229 -0.962726 1.176115 139 69 19
-3.190021 -1.010854 1.621373 139 69 19
-3.095342 -0.882061 2.127674 139 69 19
-2.894735 -0.919397 2.625649 139 69 19
-3.109837 -0.859436 2.870724 139 69 19
-2.609578 -0.955267 -2.960992 139 69 19
-2.557179 -1.080572 -2.479114 139 69 19
-2.463262 -1.073611 -2.190382 139 69 19
-2.661969 -0.850945 -1.530214 139 69 19
-2.455552 -1.092658 -1.240361 139 69 19
-2.612402 -0.920758 -0.993225 139 69 19
-2.720220 -1.002190 -0.383618 139 69 19
-2.649261 -0.836560 0.070190 139 69 19
-2.596698 -1.240516 0.441835 139 69 19
-2.817129 -0.876590 0.662265 139 69 19
-2.701520 -0.832656 1.197280 139 69 19
-2.608087 -0.990769 1.797051 139 69 19
-2.500083 -1.031612 2.030140 139 69 19
-2.632601 -1.041776 2.533271 139 69 19
-2.629553 -1.128640 2.999485 139 69 19
-2.015057 -1.185678 -3.017880 139 69 19
-2.067234 -1.030311 -2.505004 139 69 19
-1.985861 -1.055133 -2.130814 139 69 19
-2.038169 -1.082612 -1.641826 139 69 19
-2.155975 -1.167234 -1.171616 139 69 19
-2.174290 -1.046459 -0.877434 139 69 19
-3.010132 -1.076039 -2.989923 139 69 19
-3.078311 -1.004323 -2.709571 139 69 19
-3.026608 -0.879005 -2.129865 139 69 19
-3.060822 -1.048473 -1.652136 139 69 19
-2.928153 -1.121427 -1.288489 139 69 19
-2.954171 -1.053186 -0.839049 139 69 19
-3.154137 -1.179512 -0.399261 139 69 19
-2.916325 -1.103943 0.014119 139 69 19
-3.058233 -1.097844 0.423176 139 69 19
-2.999196 -0.805742 0.878273 139 69 19
-3.275118 -1.131171 1.460668 139 69 19
-3.171509 -1.091994 1.728724 139 69 19
-3.017703 -0.796186 2.343068 139 69 19
-2.974308 -1.076864 2.542007 139 69 19
-2.950363 -0.961330 2.860120 139 69 19
-2.586689 -0.998966 -3.068536 139 69 19
-2.645331 -0.937239 -2.564018 139 69 19
-2.521254 -0.898233 -2.137546 139 69 19
-2.460388 -0.849380 -1.757507 139 69 19
-2.657436 -0.961214 -1.261776 139 69 19
-2.293439 -1.256743 -0.947103 139 69 19
-2.669995 -1.043123 -0.416330 139 69 19
-2.587693 -0.844884 0.104185 139 69 19
-2.676147 -0.967724 0.687667 139 69 19
-2.563155 -1.108058 0.911822 139 69 19
-2.594828 -0.916296 1.386267 139 69 19
-2.700358 -1.010493 1.734684 139 69 19
-2.401578 -0.969095 2.026694 139 69 19
-2.601269 -0.950082 2.549087 139 69 19
-2.547320 -0.987658 3.012954 139 69 19
-2.318819 -0.954004 -2.934269 139 69 19
-2.888312 -1.001162 -2.923323 139 69 19
-2.860457 -0.926160 -2.530633 139 69 19
-3.070993 -1.092230 -2.009651 139 69 19
-2.787919 -0.981237 -1.600523 139 69 19
-2.871265 -1.066884 -1.150718 139 69 19
-2.981705 -1.103228 -0.817002 139 69 19
-2.999427 -1.056263 -0.369798 139 69 19
-3.031850 -0.775753 -0.111607 139 69 19
-2.983627 -0.894849 0.518776 139 69 19
-3.080861 -1.131382 1.029353 139 69 19
-2.916348 -0.999406 1.275579 139 69 19
-3.117044 -1.024240 1.805948 139 69 19
-3.093683 -1.111333 1.901313 139 69 19
-2.999044 -0.954742 2.635423 139 69 19
-2.918644 -1.096353 2.873540 139 69 19
-2.562291 -1.028394 -2.871003 139 69 19
-2.540693 -1.013372 -2.481739 139 69 19
-2.411432 -1.161083 -2.262210 139 69 19
-2.628259 -0.915498 -1.814302 139 69 19
-2.294960 -0.924941 -1.226318 139 69 19
-2.585057 -1.037546 -0.812541 139 69 19
-2.619264 -0.792314 -0.440652 139 69 19
-2.555650 -1.094092 0.170251 139 69 19
-2.593496 -1.088829 0.592825 139 69 19
-2.390536 -1.036995 0.731727 139 69 19
-2.514940 -0.752388 1.243535 139 69 19
-2.434074 -1.079643 1.617100 139 69 19
-2.400909 -1.104394 2.148233 139 69 19
-2.413079 -1.047344 2.708555 139 69 19
-2.791766 -0.999824 2.959487 139 69 19
-2.197421 -0.903876 -2.993460 139 69 19
-2.026664 -1.069081 -2.536425 139 69 19
-2.294730 -1.166447 -2.166204 139 69 19
-2.084238 -0.885094 -1.785976 139 69 19
-2.215529 -1.003655 -1.358598 139 69 19
-2.242984 -0.842618 -0.640111 139 69 19
-2.263060 -0.957214 -0.445221 139 69 19
-1.967224 -0.915308 -0.026750 139 69 19
-2.089270 -0.951090 0.357045 139 69 19
-3.119386 -0.860141 -2.893580 139 69 19
-3.214240 -1.138136 -2.459692 139 69 19
-2.926207 -0.915688 -2.149515 139 69 19
-2.846218 -1.027032 -1.640892 139 69 19
-3.050551 -0.971474 -1.303016 139 69 19
-3.030913 -1.012291 -0.898742 139 69 19
-3.041141 -0.801813 -0.388971 139 69 19
-2.877957 -0.923944 -0.166206 139 69 19
-3.087659 -1.188102 0.453652 139 69 19
-2.903530 -1.095522 0.988637 139 69 19
-3.037011 -1.066720 1.295340 139 69 19
-3.095534 -1.121517 1.645888 139 69 19
-3.068932 -1.058669 2.027266 139 69 19
-2.940047 -0.873684 2.472322 139 69 19
-2.880268 -1.019279 2.912289 139 69 19
-2.630450 -1.082920 -2.906866 139 69 19
-2.642679 -1.150127 -2.413918 139 69 19
-2.523277 -0.956869 -2.090611 139 69 19
-2.523979 -0.945328 -1.777247 139 69 19
-2.484366 -1.069674 -1.312741 139 69 19
-2.644648 -1.026657 -0.930743 139 69 19
-2.534709 -1.024411 -0.372665 139 69 19
-2.584872 -0.970925 -0.121397 139 69 19
-2.591231 -1.154575 0.457814 139 69 19
-2.622491 -1.122707 0.838143 139 69 19
-2.639090 -0.840998 1.176238 139 69 19
-2.647365 -1.018365 1.776915 139 69 19
-2.618810 -1.071362 2.184849 139 69 19
-2.589755 -0.972681 2.651614 139 69 19
-2.505654 -1.259178 3.098689 139 69 19
-2.219283 -1.123821 -3.017520 139 69 19
-2.072482 -0.906778 -2.692795 139 69 19
-2.082379 -1.163879 -2.118784 139 69 19
-2.033599 -1.115493 -1.803335 139 69 19
-2.236654 -1.115422 -1.333089 139 69 19
-2.384671 -1.051090 -0.841210 139 69 19
-2.096027 -1.060827 -0.402686 139 69 19
-2.095233 -1.076676 -0.030197 139 69 19
